3.1172 0.0833456 0.0833456 2 10 3
3.11721 0.0833142 0.0833142 2 10 3
3.11723 0.0832827 0.0832827 2 10 3
3.11724 0.0832512 0.0832512 2 10 3
3.11726 0.0832197 0.0832197 2 10 3
3.11728 0.0831882 0.0831882 2 10 3
3.11729 0.0831567 0.0831567 2 10 3
3.11731 0.0831253 0.0831253 2 10 3
3.11733 0.0830938 0.0830938 2 10 3
3.11734 0.0830623 0.0830623 2 10 3
3.11736 0.0830309 0.0830309 2 10 3
3.11737 0.0829994 0.0829994 2 10 3
3.11739 0.082968 0.082968 2 10 3
3.11741 0.0829365 0.0829365 2 10 3
3.11742 0.082905 0.082905 2 10 3
3.11744 0.0828736 0.0828736 2 10 3
3.11745 0.0828422 0.0828422 2 10 3
3.11747 0.0828107 0.0828107 2 10 3
3.11749 0.0827793 0.0827793 2 10 3
3.1175 0.0827479 0.0827479 2 10 3
3.11752 0.0827164 0.0827164 2 10 3
3.11753 0.082685 0.082685 2 10 3
3.11755 0.0826536 0.0826536 2 10 3
3.11757 0.0826222 0.0826222 2 10 3
3.11758 0.0825907 0.0825907 2 10 3
3.1176 0.0825593 0.0825593 2 10 3
3.11761 0.0825279 0.0825279 2 10 3
3.11763 0.0824965 0.0824965 2 10 3
3.11765 0.0824651 0.0824651 2 10 3
3.11766 0.0824337 0.0824337 2 10 3
3.11768 0.0824023 0.0824023 2 10 3
3.11769 0.0823709 0.0823709 2 10 3
3.11771 0.0823395 0.0823395 2 10 3
3.11773 0.0823081 0.0823081 2 10 3
3.11774 0.0822768 0.0822768 2 10 3
3.11776 0.0822454 0.0822454 2 10 3
3.11777 0.082214 0.082214 2 10 3
3.11779 0.0821826 0.0821826 2 10 3
3.11781 0.0821513 0.0821513 2 10 3
3.11782 0.0821199 0.0821199 2 10 3
3.11784 0.0820885 0.0820885 2 10 3
3.11785 0.0820572 0.0820572 2 10 3
3.11787 0.0820258 0.0820258 2 10 3
3.11789 0.0819945 0.0819945 2 10 3
3.1179 0.0819631 0.0819631 2 10 3
3.11792 0.0819318 0.0819318 2 10 3
3.11793 0.0819004 0.0819004 2 10 3
3.11795 0.0818691 0.0818691 2 10 3
3.11797 0.0818378 0.0818378 2 10 3
3.11798 0.0818064 0.0818064 2 10 3
3.118 0.0817751 0.0817751 2 10 3
3.11801 0.0817438 0.0817438 2 10 3
3.11803 0.0817124 0.0817124 2 10 3
3.11805 0.0816811 0.0816811 2 10 3
3.11806 0.0816498 0.0816498 2 10 3
3.11808 0.0816185 0.0816185 2 10 3
3.11809 0.0815872 0.0815872 2 10 3
3.11811 0.0815559 0.0815559 2 10 3
3.11813 0.0815246 0.0815246 2 10 3
3.11814 0.0814933 0.0814933 2 10 3
3.11816 0.081462 0.081462 2 10 3
3.11817 0.0814307 0.0814307 2 10 3
3.11819 0.0813994 0.0813994 2 10 3
3.11821 0.0813681 0.0813681 2 10 3
3.11822 0.0813368 0.0813368 2 10 3
3.11824 0.0813056 0.0813056 2 10 3
3.11825 0.0812743 0.0812743 2 10 3
3.11827 0.081243 0.081243 2 10 3
3.11828 0.0812117 0.0812117 2 10 3
3.1183 0.0811805 0.0811805 2 10 3
3.11832 0.0811492 0.0811492 2 10 3
3.11833 0.081118 0.081118 2 10 3
3.11835 0.0810867 0.0810867 2 10 3
3.11836 0.0810554 0.0810554 2 10 3
3.11838 0.0810242 0.0810242 2 10 3
3.1184 0.0809929 0.0809929 2 10 3
3.11841 0.0809617 0.0809617 2 10 3
3.11843 0.0809305 0.0809305 2 10 3
3.11844 0.0808992 0.0808992 2 10 3
3.11846 0.080868 0.080868 2 10 3
3.11847 0.0808368 0.0808368 2 10 3
3.11849 0.0808055 0.0808055 2 10 3
3.11851 0.0807743 0.0807743 2 10 3
3.11852 0.0807431 0.0807431 2 10 3
3.11854 0.0807119 0.0807119 2 10 3
3.11855 0.0806807 0.0806807 2 10 3
3.11857 0.0806495 0.0806495 2 10 3
3.11859 0.0806183 0.0806183 2 10 3
3.1186 0.0805871 0.0805871 2 10 3
3.11862 0.0805559 0.0805559 2 10 3
3.11863 0.0805247 0.0805247 2 10 3
3.11865 0.0804935 0.0804935 2 10 3
3.11866 0.0804623 0.0804623 2 10 3
3.11868 0.0804311 0.0804311 2 10 3
3.1187 0.0803999 0.0803999 2 10 3
3.11871 0.0803687 0.0803687 2 10 3
3.11873 0.0803376 0.0803376 2 10 3
3.11874 0.0803064 0.0803064 2 10 3
3.11876 0.0802752 0.0802752 2 10 3
3.11877 0.080244 0.080244 2 10 3
3.11879 0.0802129 0.0802129 2 10 3
3.11881 0.0801817 0.0801817 2 10 3
3.11882 0.0801506 0.0801506 2 10 3
3.11884 0.0801194 0.0801194 2 10 3
3.11885 0.0800883 0.0800883 2 10 3
3.11887 0.0800571 0.0800571 2 10 3
3.11889 0.080026 0.080026 2 10 3
3.1189 0.0799948 0.0799948 2 10 3
3.11892 0.0799637 0.0799637 2 10 3
3.11893 0.0799326 0.0799326 2 10 3
3.11895 0.0799014 0.0799014 2 10 3
3.11896 0.0798703 0.0798703 2 10 3
3.11898 0.0798392 0.0798392 2 10 3
3.119 0.0798081 0.0798081 2 10 3
3.11901 0.0797769 0.0797769 2 10 3
3.11903 0.0797458 0.0797458 2 10 3
3.11904 0.0797147 0.0797147 2 10 3
3.11906 0.0796836 0.0796836 2 10 3
3.11907 0.0796525 0.0796525 2 10 3
3.11909 0.0796214 0.0796214 2 10 3
3.1191 0.0795903 0.0795903 2 10 3
3.11912 0.0795592 0.0795592 2 10 3
3.11914 0.0795281 0.0795281 2 10 3
3.11915 0.079497 0.079497 2 10 3
3.11917 0.079466 0.079466 2 10 3
3.11918 0.0794349 0.0794349 2 10 3
3.1192 0.0794038 0.0794038 2 10 3
3.11921 0.0793727 0.0793727 2 10 3
3.11923 0.0793417 0.0793417 2 10 3
3.11925 0.0793106 0.0793106 2 10 3
3.11926 0.0792795 0.0792795 2 10 3
3.11928 0.0792485 0.0792485 2 10 3
3.11929 0.0792174 0.0792174 2 10 3
3.11931 0.0791864 0.0791864 2 10 3
3.11932 0.0791553 0.0791553 2 10 3
3.11934 0.0791243 0.0791243 2 10 3
3.11936 0.0790932 0.0790932 2 10 3
3.11937 0.0790622 0.0790622 2 10 3
3.11939 0.0790311 0.0790311 2 10 3
3.1194 0.0790001 0.0790001 2 10 3
3.11942 0.0789691 0.0789691 2 10 3
3.11943 0.0789381 0.0789381 2 10 3
3.11945 0.078907 0.078907 2 10 3
3.11946 0.078876 0.078876 2 10 3
3.11948 0.078845 0.078845 2 10 3
3.1195 0.078814 0.078814 2 10 3
3.11951 0.078783 0.078783 2 10 3
3.11953 0.078752 0.078752 2 10 3
3.11954 0.078721 0.078721 2 10 3
3.11956 0.07869 0.07869 2 10 3
3.11957 0.078659 0.078659 2 10 3
3.11959 0.078628 0.078628 2 10 3
3.1196 0.078597 0.078597 2 10 3
3.11962 0.078566 0.078566 2 10 3
3.11964 0.078535 0.078535 2 10 3
3.11965 0.078504 0.078504 2 10 3
3.11967 0.078473 0.078473 2 10 3
3.11968 0.0784421 0.0784421 2 10 3
3.1197 0.0784111 0.0784111 2 10 3
3.11971 0.0783801 0.0783801 2 10 3
3.11973 0.0783492 0.0783492 2 10 3
3.11974 0.0783182 0.0783182 2 10 3
3.11976 0.0782872 0.0782872 2 10 3
3.11978 0.0782563 0.0782563 2 10 3
3.11979 0.0782253 0.0782253 2 10 3
3.11981 0.0781944 0.0781944 2 10 3
3.11982 0.0781634 0.0781634 2 10 3
3.11984 0.0781325 0.0781325 2 10 3
3.11985 0.0781016 0.0781016 2 10 3
3.11987 0.0780706 0.0780706 2 10 3
3.11988 0.0780397 0.0780397 2 10 3
3.1199 0.0780088 0.0780088 2 10 3
3.11992 0.0779778 0.0779778 2 10 3
3.11993 0.0779469 0.0779469 2 10 3
3.11995 0.077916 0.077916 2 10 3
3.11996 0.0778851 0.0778851 2 10 3
3.11998 0.0778542 0.0778542 2 10 3
3.11999 0.0778233 0.0778233 2 10 3
3.12001 0.0777924 0.0777924 2 10 3
3.12002 0.0777615 0.0777615 2 10 3
3.12004 0.0777306 0.0777306 2 10 3
3.12005 0.0776997 0.0776997 2 10 3
3.12007 0.0776688 0.0776688 2 10 3
3.12009 0.0776379 0.0776379 2 10 3
3.1201 0.077607 0.077607 2 10 3
3.12012 0.0775761 0.0775761 2 10 3
3.12013 0.0775452 0.0775452 2 10 3
3.12015 0.0775144 0.0775144 2 10 3
3.12016 0.0774835 0.0774835 2 10 3
3.12018 0.0774526 0.0774526 2 10 3
3.12019 0.0774218 0.0774218 2 10 3
3.12021 0.0773909 0.0773909 2 10 3
3.12022 0.07736 0.07736 2 10 3
3.12024 0.0773292 0.0773292 2 10 3
3.12026 0.0772983 0.0772983 2 10 3
3.12027 0.0772675 0.0772675 2 10 3
3.12029 0.0772366 0.0772366 2 10 3
3.1203 0.0772058 0.0772058 2 10 3
3.12032 0.0771749 0.0771749 2 10 3
3.12033 0.0771441 0.0771441 2 10 3
3.12035 0.0771133 0.0771133 2 10 3
3.12036 0.0770825 0.0770825 2 10 3
3.12038 0.0770516 0.0770516 2 10 3
3.12039 0.0770208 0.0770208 2 10 3
3.12041 0.07699 0.07699 2 10 3
3.12042 0.0769592 0.0769592 2 10 3
3.12044 0.0769284 0.0769284 2 10 3
3.12046 0.0768975 0.0768975 2 10 3
3.12047 0.0768667 0.0768667 2 10 3
3.12049 0.0768359 0.0768359 2 10 3
3.1205 0.0768051 0.0768051 2 10 3
3.12052 0.0767743 0.0767743 2 10 3
3.12053 0.0767435 0.0767435 2 10 3
3.12055 0.0767128 0.0767128 2 10 3
3.12056 0.076682 0.076682 2 10 3
3.12058 0.0766512 0.0766512 2 10 3
3.12059 0.0766204 0.0766204 2 10 3
3.12061 0.0765896 0.0765896 2 10 3
3.12062 0.0765588 0.0765588 2 10 3
3.12064 0.0765281 0.0765281 2 10 3
3.12065 0.0764973 0.0764973 2 10 3
3.12067 0.0764665 0.0764665 2 10 3
3.12069 0.0764358 0.0764358 2 10 3
3.1207 0.076405 0.076405 2 10 3
3.12072 0.0763743 0.0763743 2 10 3
3.12073 0.0763435 0.0763435 2 10 3
3.12075 0.0763128 0.0763128 2 10 3
3.12076 0.076282 0.076282 2 10 3
3.12078 0.0762513 0.0762513 2 10 3
3.12079 0.0762205 0.0762205 2 10 3
3.12081 0.0761898 0.0761898 2 10 3
3.12082 0.0761591 0.0761591 2 10 3
3.12084 0.0761284 0.0761284 2 10 3
3.12085 0.0760976 0.0760976 2 10 3
3.12087 0.0760669 0.0760669 2 10 3
3.12088 0.0760362 0.0760362 2 10 3
3.1209 0.0760055 0.0760055 2 10 3
3.12091 0.0759748 0.0759748 2 10 3
3.12093 0.0759441 0.0759441 2 10 3
3.12094 0.0759133 0.0759133 2 10 3
3.12096 0.0758826 0.0758826 2 10 3
3.12098 0.0758519 0.0758519 2 10 3
3.12099 0.0758212 0.0758212 2 10 3
3.12101 0.0757906 0.0757906 2 10 3
3.12102 0.0757599 0.0757599 2 10 3
3.12104 0.0757292 0.0757292 2 10 3
3.12105 0.0756985 0.0756985 2 10 3
3.12107 0.0756678 0.0756678 2 10 3
3.12108 0.0756371 0.0756371 2 10 3
3.1211 0.0756065 0.0756065 2 10 3
3.12111 0.0755758 0.0755758 2 10 3
3.12113 0.0755451 0.0755451 2 10 3
3.12114 0.0755145 0.0755145 2 10 3
3.12116 0.0754838 0.0754838 2 10 3
3.12117 0.0754532 0.0754532 2 10 3
3.12119 0.0754225 0.0754225 2 10 3
3.1212 0.0753919 0.0753919 2 10 3
3.12122 0.0753612 0.0753612 2 10 3
3.12123 0.0753306 0.0753306 2 10 3
3.12125 0.0752999 0.0752999 2 10 3
3.12126 0.0752693 0.0752693 2 10 3
3.12128 0.0752387 0.0752387 2 10 3
3.12129 0.075208 0.075208 2 10 3
3.12131 0.0751774 0.0751774 2 10 3
3.12132 0.0751468 0.0751468 2 10 3
3.12134 0.0751161 0.0751161 2 10 3
3.12136 0.0750855 0.0750855 2 10 3
3.12137 0.0750549 0.0750549 2 10 3
3.12139 0.0750243 0.0750243 2 10 3
3.1214 0.0749937 0.0749937 2 10 3
3.12142 0.0749631 0.0749631 2 10 3
3.12143 0.0749325 0.0749325 2 10 3
3.12145 0.0749019 0.0749019 2 10 3
3.12146 0.0748713 0.0748713 2 10 3
3.12148 0.0748407 0.0748407 2 10 3
3.12149 0.0748101 0.0748101 2 10 3
3.12151 0.0747795 0.0747795 2 10 3
3.12152 0.074749 0.074749 2 10 3
3.12154 0.0747184 0.0747184 2 10 3
3.12155 0.0746878 0.0746878 2 10 3
3.12157 0.0746572 0.0746572 2 10 3
3.12158 0.0746267 0.0746267 2 10 3
3.1216 0.0745961 0.0745961 2 10 3
3.12161 0.0745655 0.0745655 2 10 3
3.12163 0.074535 0.074535 2 10 3
3.12164 0.0745044 0.0745044 2 10 3
3.12166 0.0744739 0.0744739 2 10 3
3.12167 0.0744433 0.0744433 2 10 3
3.12169 0.0744128 0.0744128 2 10 3
3.1217 0.0743822 0.0743822 2 10 3
3.12172 0.0743517 0.0743517 2 10 3
3.12173 0.0743212 0.0743212 2 10 3
3.12175 0.0742906 0.0742906 2 10 3
3.12176 0.0742601 0.0742601 2 10 3
3.12178 0.0742296 0.0742296 2 10 3
3.12179 0.074199 0.074199 2 10 3
3.12181 0.0741685 0.0741685 2 10 3
3.12182 0.074138 0.074138 2 10 3
3.12184 0.0741075 0.0741075 2 10 3
3.12185 0.074077 0.074077 2 10 3
3.12187 0.0740465 0.0740465 2 10 3
3.12188 0.074016 0.074016 2 10 3
3.1219 0.0739855 0.0739855 2 10 3
3.12191 0.073955 0.073955 2 10 3
3.12193 0.0739245 0.0739245 2 10 3
3.12194 0.073894 0.073894 2 10 3
3.12196 0.0738635 0.0738635 2 10 3
3.12197 0.073833 0.073833 2 10 3
3.12199 0.0738025 0.0738025 2 10 3
3.122 0.0737721 0.0737721 2 10 3
3.12202 0.0737416 0.0737416 2 10 3
3.12203 0.0737111 0.0737111 2 10 3
3.12205 0.0736806 0.0736806 2 10 3
3.12206 0.0736502 0.0736502 2 10 3
3.12208 0.0736197 0.0736197 2 10 3
3.12209 0.0735893 0.0735893 2 10 3
3.12211 0.0735588 0.0735588 2 10 3
3.12212 0.0735283 0.0735283 2 10 3
3.12214 0.0734979 0.0734979 2 10 3
3.12215 0.0734675 0.0734675 2 10 3
3.12217 0.073437 0.073437 2 10 3
3.12218 0.0734066 0.0734066 2 10 3
3.1222 0.0733761 0.0733761 2 10 3
3.12221 0.0733457 0.0733457 2 10 3
3.12223 0.0733153 0.0733153 2 10 3
3.12224 0.0732849 0.0732849 2 10 3
3.12226 0.0732544 0.0732544 2 10 3
3.12227 0.073224 0.073224 2 10 3
3.12229 0.0731936 0.0731936 2 10 3
3.1223 0.0731632 0.0731632 2 10 3
3.12232 0.0731328 0.0731328 2 10 3
3.12233 0.0731024 0.0731024 2 10 3
3.12235 0.073072 0.073072 2 10 3
3.12236 0.0730416 0.0730416 2 10 3
3.12238 0.0730112 0.0730112 2 10 3
3.12239 0.0729808 0.0729808 2 10 3
3.12241 0.0729504 0.0729504 2 10 3
3.12242 0.07292 0.07292 2 10 3
3.12244 0.0728896 0.0728896 2 10 3
3.12245 0.0728592 0.0728592 2 10 3
3.12247 0.0728288 0.0728288 2 10 3
3.12248 0.0727985 0.0727985 2 10 3
3.1225 0.0727681 0.0727681 2 10 3
3.12251 0.0727377 0.0727377 2 10 3
3.12253 0.0727074 0.0727074 2 10 3
3.12254 0.072677 0.072677 2 10 3
3.12256 0.0726466 0.0726466 2 10 3
3.12257 0.0726163 0.0726163 2 10 3
3.12259 0.0725859 0.0725859 2 10 3
3.1226 0.0725556 0.0725556 2 10 3
3.12262 0.0725252 0.0725252 2 10 3
3.12263 0.0724949 0.0724949 2 10 3
3.12265 0.0724646 0.0724646 2 10 3
3.12266 0.0724342 0.0724342 2 10 3
3.12267 0.0724039 0.0724039 2 10 3
3.12269 0.0723736 0.0723736 2 10 3
3.1227 0.0723432 0.0723432 2 10 3
3.12272 0.0723129 0.0723129 2 10 3
3.12273 0.0722826 0.0722826 2 10 3
3.12275 0.0722523 0.0722523 2 10 3
3.12276 0.072222 0.072222 2 10 3
3.12278 0.0721917 0.0721917 2 10 3
3.12279 0.0721614 0.0721614 2 10 3
3.12281 0.0721311 0.0721311 2 10 3
3.12282 0.0721008 0.0721008 2 10 3
3.12284 0.0720705 0.0720705 2 10 3
3.12285 0.0720402 0.0720402 2 10 3
3.12287 0.0720099 0.0720099 2 10 3
3.12288 0.0719796 0.0719796 2 10 3
3.1229 0.0719493 0.0719493 2 10 3
3.12291 0.071919 0.071919 2 10 3
3.12293 0.0718887 0.0718887 2 10 3
3.12294 0.0718585 0.0718585 2 10 3
3.12296 0.0718282 0.0718282 2 10 3
3.12297 0.0717979 0.0717979 2 10 3
3.12299 0.0717677 0.0717677 2 10 3
3.123 0.0717374 0.0717374 2 10 3
3.12302 0.0717071 0.0717071 2 10 3
3.12303 0.0716769 0.0716769 2 10 3
3.12304 0.0716466 0.0716466 2 10 3
3.12306 0.0716164 0.0716164 2 10 3
3.12307 0.0715861 0.0715861 2 10 3
3.12309 0.0715559 0.0715559 2 10 3
3.1231 0.0715257 0.0715257 2 10 3
3.12312 0.0714954 0.0714954 2 10 3
3.12313 0.0714652 0.0714652 2 10 3
3.12315 0.071435 0.071435 2 10 3
3.12316 0.0714047 0.0714047 2 10 3
3.12318 0.0713745 0.0713745 2 10 3
3.12319 0.0713443 0.0713443 2 10 3
3.12321 0.0713141 0.0713141 2 10 3
3.12322 0.0712839 0.0712839 2 10 3
3.12324 0.0712537 0.0712537 2 10 3
3.12325 0.0712234 0.0712234 2 10 3
3.12327 0.0711932 0.0711932 2 10 3
3.12328 0.071163 0.071163 2 10 3
3.12329 0.0711328 0.0711328 2 10 3
3.12331 0.0711026 0.0711026 2 10 3
3.12332 0.0710725 0.0710725 2 10 3
3.12334 0.0710423 0.0710423 2 10 3
3.12335 0.0710121 0.0710121 2 10 3
3.12337 0.0709819 0.0709819 2 10 3
3.12338 0.0709517 0.0709517 2 10 3
3.1234 0.0709216 0.0709216 2 10 3
3.12341 0.0708914 0.0708914 2 10 3
3.12343 0.0708612 0.0708612 2 10 3
3.12344 0.070831 0.070831 2 10 3
3.12346 0.0708009 0.0708009 2 10 3
3.12347 0.0707707 0.0707707 2 10 3
3.12349 0.0707406 0.0707406 2 10 3
3.1235 0.0707104 0.0707104 2 10 3
3.12352 0.0706803 0.0706803 2 10 3
3.12353 0.0706501 0.0706501 2 10 3
3.12354 0.07062 0.07062 2 10 3
3.12356 0.0705898 0.0705898 2 10 3
3.12357 0.0705597 0.0705597 2 10 3
3.12359 0.0705296 0.0705296 2 10 3
3.1236 0.0704994 0.0704994 2 10 3
3.12362 0.0704693 0.0704693 2 10 3
3.12363 0.0704392 0.0704392 2 10 3
3.12365 0.0704091 0.0704091 2 10 3
3.12366 0.0703789 0.0703789 2 10 3
3.12368 0.0703488 0.0703488 2 10 3
3.12369 0.0703187 0.0703187 2 10 3
3.12371 0.0702886 0.0702886 2 10 3
3.12372 0.0702585 0.0702585 2 10 3
3.12373 0.0702284 0.0702284 2 10 3
3.12375 0.0701983 0.0701983 2 10 3
3.12376 0.0701682 0.0701682 2 10 3
3.12378 0.0701381 0.0701381 2 10 3
3.12379 0.070108 0.070108 2 10 3
3.12381 0.0700779 0.0700779 2 10 3
3.12382 0.0700479 0.0700479 2 10 3
3.12384 0.0700178 0.0700178 2 10 3
3.12385 0.0699877 0.0699877 2 10 3
3.12387 0.0699576 0.0699576 2 10 3
3.12388 0.0699276 0.0699276 2 10 3
3.12389 0.0698975 0.0698975 2 10 3
3.12391 0.0698674 0.0698674 2 10 3
3.12392 0.0698374 0.0698374 2 10 3
3.12394 0.0698073 0.0698073 2 10 3
3.12395 0.0697773 0.0697773 2 10 3
3.12397 0.0697472 0.0697472 2 10 3
3.12398 0.0697172 0.0697172 2 10 3
3.124 0.0696871 0.0696871 2 10 3
3.12401 0.0696571 0.0696571 2 10 3
3.12403 0.0696271 0.0696271 2 10 3
3.12404 0.069597 0.069597 2 10 3
3.12405 0.069567 0.069567 2 10 3
3.12407 0.069537 0.069537 2 10 3
3.12408 0.0695069 0.0695069 2 10 3
3.1241 0.0694769 0.0694769 2 10 3
3.12411 0.0694469 0.0694469 2 10 3
3.12413 0.0694169 0.0694169 2 10 3
3.12414 0.0693869 0.0693869 2 10 3
3.12416 0.0693569 0.0693569 2 10 3
3.12417 0.0693269 0.0693269 2 10 3
3.12419 0.0692968 0.0692968 2 10 3
3.1242 0.0692668 0.0692668 2 10 3
3.12421 0.0692369 0.0692369 2 10 3
3.12423 0.0692069 0.0692069 2 10 3
3.12424 0.0691769 0.0691769 2 10 3
3.12426 0.0691469 0.0691469 2 10 3
3.12427 0.0691169 0.0691169 2 10 3
3.12429 0.0690869 0.0690869 2 10 3
3.1243 0.0690569 0.0690569 2 10 3
3.12432 0.069027 0.069027 2 10 3
3.12433 0.068997 0.068997 2 10 3
3.12434 0.068967 0.068967 2 10 3
3.12436 0.0689371 0.0689371 2 10 3
3.12437 0.0689071 0.0689071 2 10 3
3.12439 0.0688771 0.0688771 2 10 3
3.1244 0.0688472 0.0688472 2 10 3
3.12442 0.0688172 0.0688172 2 10 3
3.12443 0.0687873 0.0687873 2 10 3
3.12445 0.0687573 0.0687573 2 10 3
3.12446 0.0687274 0.0687274 2 10 3
3.12447 0.0686975 0.0686975 2 10 3
3.12449 0.0686675 0.0686675 2 10 3
3.1245 0.0686376 0.0686376 2 10 3
3.12452 0.0686077 0.0686077 2 10 3
3.12453 0.0685777 0.0685777 2 10 3
3.12455 0.0685478 0.0685478 2 10 3
3.12456 0.0685179 0.0685179 2 10 3
3.12458 0.068488 0.068488 2 10 3
3.12459 0.0684581 0.0684581 2 10 3
3.1246 0.0684282 0.0684282 2 10 3
3.12462 0.0683983 0.0683983 2 10 3
3.12463 0.0683684 0.0683684 2 10 3
3.12465 0.0683385 0.0683385 2 10 3
3.12466 0.0683086 0.0683086 2 10 3
3.12468 0.0682787 0.0682787 2 10 3
3.12469 0.0682488 0.0682488 2 10 3
3.1247 0.0682189 0.0682189 2 10 3
3.12472 0.068189 0.068189 2 10 3
3.12473 0.0681591 0.0681591 2 10 3
3.12475 0.0681292 0.0681292 2 10 3
3.12476 0.0680994 0.0680994 2 10 3
3.12478 0.0680695 0.0680695 2 10 3
3.12479 0.0680396 0.0680396 2 10 3
3.12481 0.0680098 0.0680098 2 10 3
3.12482 0.0679799 0.0679799 2 10 3
3.12483 0.06795 0.06795 2 10 3
3.12485 0.0679202 0.0679202 2 10 3
3.12486 0.0678903 0.0678903 2 10 3
3.12488 0.0678605 0.0678605 2 10 3
3.12489 0.0678306 0.0678306 2 10 3
3.12491 0.0678008 0.0678008 2 10 3
3.12492 0.0677709 0.0677709 2 10 3
3.12493 0.0677411 0.0677411 2 10 3
3.12495 0.0677113 0.0677113 2 10 3
3.12496 0.0676814 0.0676814 2 10 3
3.12498 0.0676516 0.0676516 2 10 3
3.12499 0.0676218 0.0676218 2 10 3
3.12501 0.067592 0.067592 2 10 3
3.12502 0.0675621 0.0675621 2 10 3
3.12503 0.0675323 0.0675323 2 10 3
3.12505 0.0675025 0.0675025 2 10 3
3.12506 0.0674727 0.0674727 2 10 3
3.12508 0.0674429 0.0674429 2 10 3
3.12509 0.0674131 0.0674131 2 10 3
3.12511 0.0673833 0.0673833 2 10 3
3.12512 0.0673535 0.0673535 2 10 3
3.12513 0.0673237 0.0673237 2 10 3
3.12515 0.0672939 0.0672939 2 10 3
3.12516 0.0672641 0.0672641 2 10 3
3.12518 0.0672344 0.0672344 2 10 3
3.12519 0.0672046 0.0672046 2 10 3
3.12521 0.0671748 0.0671748 2 10 3
3.12522 0.067145 0.067145 2 10 3
3.12523 0.0671152 0.0671152 2 10 3
3.12525 0.0670855 0.0670855 2 10 3
3.12526 0.0670557 0.0670557 2 10 3
3.12528 0.067026 0.067026 2 10 3
3.12529 0.0669962 0.0669962 2 10 3
3.12531 0.0669664 0.0669664 2 10 3
3.12532 0.0669367 0.0669367 2 10 3
3.12533 0.0669069 0.0669069 2 10 3
3.12535 0.0668772 0.0668772 2 10 3
3.12536 0.0668475 0.0668475 2 10 3
3.12538 0.0668177 0.0668177 2 10 3
3.12539 0.066788 0.066788 2 10 3
3.1254 0.0667582 0.0667582 2 10 3
3.12542 0.0667285 0.0667285 2 10 3
3.12543 0.0666988 0.0666988 2 10 3
3.12545 0.0666691 0.0666691 2 10 3
3.12546 0.0666393 0.0666393 2 10 3
3.12548 0.0666096 0.0666096 2 10 3
3.12549 0.0665799 0.0665799 2 10 3
3.1255 0.0665502 0.0665502 2 10 3
3.12552 0.0665205 0.0665205 2 10 3
3.12553 0.0664908 0.0664908 2 10 3
3.12555 0.0664611 0.0664611 2 10 3
3.12556 0.0664314 0.0664314 2 10 3
3.12558 0.0664017 0.0664017 2 10 3
3.12559 0.066372 0.066372 2 10 3
3.1256 0.0663423 0.0663423 2 10 3
3.12562 0.0663126 0.0663126 2 10 3
3.12563 0.0662829 0.0662829 2 10 3
3.12565 0.0662533 0.0662533 2 10 3
3.12566 0.0662236 0.0662236 2 10 3
3.12567 0.0661939 0.0661939 2 10 3
3.12569 0.0661642 0.0661642 2 10 3
3.1257 0.0661346 0.0661346 2 10 3
3.12572 0.0661049 0.0661049 2 10 3
3.12573 0.0660753 0.0660753 2 10 3
3.12574 0.0660456 0.0660456 2 10 3
3.12576 0.0660159 0.0660159 2 10 3
3.12577 0.0659863 0.0659863 2 10 3
3.12579 0.0659566 0.0659566 2 10 3
3.1258 0.065927 0.065927 2 10 3
3.12582 0.0658974 0.0658974 2 10 3
3.12583 0.0658677 0.0658677 2 10 3
3.12584 0.0658381 0.0658381 2 10 3
3.12586 0.0658084 0.0658084 2 10 3
3.12587 0.0657788 0.0657788 2 10 3
3.12589 0.0657492 0.0657492 2 10 3
3.1259 0.0657196 0.0657196 2 10 3
3.12591 0.06569 0.06569 2 10 3
3.12593 0.0656603 0.0656603 2 10 3
3.12594 0.0656307 0.0656307 2 10 3
3.12596 0.0656011 0.0656011 2 10 3
3.12597 0.0655715 0.0655715 2 10 3
3.12598 0.0655419 0.0655419 2 10 3
3.126 0.0655123 0.0655123 2 10 3
3.12601 0.0654827 0.0654827 2 10 3
3.12603 0.0654531 0.0654531 2 10 3
3.12604 0.0654235 0.0654235 2 10 3
3.12605 0.0653939 0.0653939 2 10 3
3.12607 0.0653643 0.0653643 2 10 3
3.12608 0.0653348 0.0653348 2 10 3
3.1261 0.0653052 0.0653052 2 10 3
3.12611 0.0652756 0.0652756 2 10 3
3.12613 0.065246 0.065246 2 10 3
3.12614 0.0652165 0.0652165 2 10 3
3.12615 0.0651869 0.0651869 2 10 3
3.12617 0.0651573 0.0651573 2 10 3
3.12618 0.0651278 0.0651278 2 10 3
3.1262 0.0650982 0.0650982 2 10 3
3.12621 0.0650687 0.0650687 2 10 3
3.12622 0.0650391 0.0650391 2 10 3
3.12624 0.0650096 0.0650096 2 10 3
3.12625 0.06498 0.06498 2 10 3
3.12627 0.0649505 0.0649505 2 10 3
3.12628 0.0649209 0.0649209 2 10 3
3.12629 0.0648914 0.0648914 2 10 3
3.12631 0.0648619 0.0648619 2 10 3
3.12632 0.0648323 0.0648323 2 10 3
3.12634 0.0648028 0.0648028 2 10 3
3.12635 0.0647733 0.0647733 2 10 3
3.12636 0.0647438 0.0647438 2 10 3
3.12638 0.0647143 0.0647143 2 10 3
3.12639 0.0646847 0.0646847 2 10 3
3.12641 0.0646552 0.0646552 2 10 3
3.12642 0.0646257 0.0646257 2 10 3
3.12643 0.0645962 0.0645962 2 10 3
3.12645 0.0645667 0.0645667 2 10 3
3.12646 0.0645372 0.0645372 2 10 3
3.12648 0.0645077 0.0645077 2 10 3
3.12649 0.0644782 0.0644782 2 10 3
3.1265 0.0644488 0.0644488 2 10 3
3.12652 0.0644193 0.0644193 2 10 3
3.12653 0.0643898 0.0643898 2 10 3
3.12655 0.0643603 0.0643603 2 10 3
3.12656 0.0643308 0.0643308 2 10 3
3.12657 0.0643014 0.0643014 2 10 3
3.12659 0.0642719 0.0642719 2 10 3
3.1266 0.0642424 0.0642424 2 10 3
3.12661 0.064213 0.064213 2 10 3
3.12663 0.0641835 0.0641835 2 10 3
3.12664 0.064154 0.064154 2 10 3
3.12666 0.0641246 0.0641246 2 10 3
3.12667 0.0640951 0.0640951 2 10 3
3.12668 0.0640657 0.0640657 2 10 3
3.1267 0.0640363 0.0640363 2 10 3
3.12671 0.0640068 0.0640068 2 10 3
3.12673 0.0639774 0.0639774 2 10 3
3.12674 0.0639479 0.0639479 2 10 3
3.12675 0.0639185 0.0639185 2 10 3
3.12677 0.0638891 0.0638891 2 10 3
3.12678 0.0638597 0.0638597 2 10 3
3.1268 0.0638302 0.0638302 2 10 3
3.12681 0.0638008 0.0638008 2 10 3
3.12682 0.0637714 0.0637714 2 10 3
3.12684 0.063742 0.063742 2 10 3
3.12685 0.0637126 0.0637126 2 10 3
3.12687 0.0636832 0.0636832 2 10 3
3.12688 0.0636538 0.0636538 2 10 3
3.12689 0.0636244 0.0636244 2 10 3
3.12691 0.063595 0.063595 2 10 3
3.12692 0.0635656 0.0635656 2 10 3
3.12693 0.0635362 0.0635362 2 10 3
3.12695 0.0635068 0.0635068 2 10 3
3.12696 0.0634774 0.0634774 2 10 3
3.12698 0.063448 0.063448 2 10 3
3.12699 0.0634186 0.0634186 2 10 3
3.127 0.0633893 0.0633893 2 10 3
3.12702 0.0633599 0.0633599 2 10 3
3.12703 0.0633305 0.0633305 2 10 3
3.12705 0.0633012 0.0633012 2 10 3
3.12706 0.0632718 0.0632718 2 10 3
3.12707 0.0632424 0.0632424 2 10 3
3.12709 0.0632131 0.0632131 2 10 3
3.1271 0.0631837 0.0631837 2 10 3
3.12711 0.0631544 0.0631544 2 10 3
3.12713 0.063125 0.063125 2 10 3
3.12714 0.0630957 0.0630957 2 10 3
3.12716 0.0630663 0.0630663 2 10 3
3.12717 0.063037 0.063037 2 10 3
3.12718 0.0630077 0.0630077 2 10 3
3.1272 0.0629783 0.0629783 2 10 3
3.12721 0.062949 0.062949 2 10 3
3.12722 0.0629197 0.0629197 2 10 3
3.12724 0.0628904 0.0628904 2 10 3
3.12725 0.062861 0.062861 2 10 3
3.12727 0.0628317 0.0628317 2 10 3
3.12728 0.0628024 0.0628024 2 10 3
3.12729 0.0627731 0.0627731 2 10 3
3.12731 0.0627438 0.0627438 2 10 3
3.12732 0.0627145 0.0627145 2 10 3
3.12734 0.0626852 0.0626852 2 10 3
3.12735 0.0626559 0.0626559 2 10 3
3.12736 0.0626266 0.0626266 2 10 3
3.12738 0.0625973 0.0625973 2 10 3
3.12739 0.062568 0.062568 2 10 3
3.1274 0.0625387 0.0625387 2 10 3
3.12742 0.0625094 0.0625094 2 10 3
3.12743 0.0624802 0.0624802 2 10 3
3.12745 0.0624509 0.0624509 2 10 3
3.12746 0.0624216 0.0624216 2 10 3
3.12747 0.0623923 0.0623923 2 10 3
3.12749 0.0623631 0.0623631 2 10 3
3.1275 0.0623338 0.0623338 2 10 3
3.12751 0.0623046 0.0623046 2 10 3
3.12753 0.0622753 0.0622753 2 10 3
3.12754 0.062246 0.062246 2 10 3
3.12755 0.0622168 0.0622168 2 10 3
3.12757 0.0621875 0.0621875 2 10 3
3.12758 0.0621583 0.0621583 2 10 3
3.1276 0.062129 0.062129 2 10 3
3.12761 0.0620998 0.0620998 2 10 3
3.12762 0.0620706 0.0620706 2 10 3
3.12764 0.0620413 0.0620413 2 10 3
3.12765 0.0620121 0.0620121 2 10 3
3.12766 0.0619829 0.0619829 2 10 3
3.12768 0.0619537 0.0619537 2 10 3
3.12769 0.0619244 0.0619244 2 10 3
3.12771 0.0618952 0.0618952 2 10 3
3.12772 0.061866 0.061866 2 10 3
3.12773 0.0618368 0.0618368 2 10 3
3.12775 0.0618076 0.0618076 2 10 3
3.12776 0.0617784 0.0617784 2 10 3
3.12777 0.0617492 0.0617492 2 10 3
3.12779 0.06172 0.06172 2 10 3
3.1278 0.0616908 0.0616908 2 10 3
3.12781 0.0616616 0.0616616 2 10 3
3.12783 0.0616324 0.0616324 2 10 3
3.12784 0.0616032 0.0616032 2 10 3
3.12786 0.061574 0.061574 2 10 3
3.12787 0.0615449 0.0615449 2 10 3
3.12788 0.0615157 0.0615157 2 10 3
3.1279 0.0614865 0.0614865 2 10 3
3.12791 0.0614573 0.0614573 2 10 3
3.12792 0.0614282 0.0614282 2 10 3
3.12794 0.061399 0.061399 2 10 3
3.12795 0.0613698 0.0613698 2 10 3
3.12797 0.0613407 0.0613407 2 10 3
3.12798 0.0613115 0.0613115 2 10 3
3.12799 0.0612824 0.0612824 2 10 3
3.12801 0.0612532 0.0612532 2 10 3
3.12802 0.0612241 0.0612241 2 10 3
3.12803 0.0611949 0.0611949 2 10 3
3.12805 0.0611658 0.0611658 2 10 3
3.12806 0.0611367 0.0611367 2 10 3
3.12807 0.0611075 0.0611075 2 10 3
3.12809 0.0610784 0.0610784 2 10 3
3.1281 0.0610493 0.0610493 2 10 3
3.12811 0.0610201 0.0610201 2 10 3
3.12813 0.060991 0.060991 2 10 3
3.12814 0.0609619 0.0609619 2 10 3
3.12816 0.0609328 0.0609328 2 10 3
3.12817 0.0609037 0.0609037 2 10 3
3.12818 0.0608746 0.0608746 2 10 3
3.1282 0.0608455 0.0608455 2 10 3
3.12821 0.0608164 0.0608164 2 10 3
3.12822 0.0607873 0.0607873 2 10 3
3.12824 0.0607582 0.0607582 2 10 3
3.12825 0.0607291 0.0607291 2 10 3
3.12826 0.0607 0.0607 2 10 3
3.12828 0.0606709 0.0606709 2 10 3
3.12829 0.0606418 0.0606418 2 10 3
3.1283 0.0606127 0.0606127 2 10 3
3.12832 0.0605836 0.0605836 2 10 3
3.12833 0.0605546 0.0605546 2 10 3
3.12835 0.0605255 0.0605255 2 10 3
3.12836 0.0604964 0.0604964 2 10 3
3.12837 0.0604674 0.0604674 2 10 3
3.12839 0.0604383 0.0604383 2 10 3
3.1284 0.0604092 0.0604092 2 10 3
3.12841 0.0603802 0.0603802 2 10 3
3.12843 0.0603511 0.0603511 2 10 3
3.12844 0.0603221 0.0603221 2 10 3
3.12845 0.060293 0.060293 2 10 3
3.12847 0.060264 0.060264 2 10 3
3.12848 0.0602349 0.0602349 2 10 3
3.12849 0.0602059 0.0602059 2 10 3
3.12851 0.0601769 0.0601769 2 10 3
3.12852 0.0601478 0.0601478 2 10 3
3.12853 0.0601188 0.0601188 2 10 3
3.12855 0.0600898 0.0600898 2 10 3
3.12856 0.0600608 0.0600608 2 10 3
3.12858 0.0600317 0.0600317 2 10 3
3.12859 0.0600027 0.0600027 2 10 3
3.1286 0.0599737 0.0599737 2 10 3
3.12862 0.0599447 0.0599447 2 10 3
3.12863 0.0599157 0.0599157 2 10 3
3.12864 0.0598867 0.0598867 2 10 3
3.12866 0.0598577 0.0598577 2 10 3
3.12867 0.0598287 0.0598287 2 10 3
3.12868 0.0597997 0.0597997 2 10 3
3.1287 0.0597707 0.0597707 2 10 3
3.12871 0.0597417 0.0597417 2 10 3
3.12872 0.0597127 0.0597127 2 10 3
3.12874 0.0596837 0.0596837 2 10 3
3.12875 0.0596548 0.0596548 2 10 3
3.12876 0.0596258 0.0596258 2 10 3
3.12878 0.0595968 0.0595968 2 10 3
3.12879 0.0595678 0.0595678 2 10 3
3.1288 0.0595389 0.0595389 2 10 3
3.12882 0.0595099 0.0595099 2 10 3
3.12883 0.0594809 0.0594809 2 10 3
3.12884 0.059452 0.059452 2 10 3
3.12886 0.059423 0.059423 2 10 3
3.12887 0.0593941 0.0593941 2 10 3
3.12888 0.0593651 0.0593651 2 10 3
3.1289 0.0593362 0.0593362 2 10 3
3.12891 0.0593072 0.0593072 2 10 3
3.12892 0.0592783 0.0592783 2 10 3
3.12894 0.0592494 0.0592494 2 10 3
3.12895 0.0592204 0.0592204 2 10 3
3.12896 0.0591915 0.0591915 2 10 3
3.12898 0.0591626 0.0591626 2 10 3
3.12899 0.0591336 0.0591336 2 10 3
3.12901 0.0591047 0.0591047 2 10 3
3.12902 0.0590758 0.0590758 2 10 3
3.12903 0.0590469 0.0590469 2 10 3
3.12905 0.059018 0.059018 2 10 3
3.12906 0.0589891 0.0589891 2 10 3
3.12907 0.0589602 0.0589602 2 10 3
3.12909 0.0589313 0.0589313 2 10 3
3.1291 0.0589024 0.0589024 2 10 3
3.12911 0.0588735 0.0588735 2 10 3
3.12913 0.0588446 0.0588446 2 10 3
3.12914 0.0588157 0.0588157 2 10 3
3.12915 0.0587868 0.0587868 2 10 3
3.12917 0.0587579 0.0587579 2 10 3
3.12918 0.058729 0.058729 2 10 3
3.12919 0.0587001 0.0587001 2 10 3
3.12921 0.0586713 0.0586713 2 10 3
3.12922 0.0586424 0.0586424 2 10 3
3.12923 0.0586135 0.0586135 2 10 3
3.12925 0.0585847 0.0585847 2 10 3
3.12926 0.0585558 0.0585558 2 10 3
3.12927 0.0585269 0.0585269 2 10 3
3.12929 0.0584981 0.0584981 2 10 3
3.1293 0.0584692 0.0584692 2 10 3
3.12931 0.0584404 0.0584404 2 10 3
3.12933 0.0584115 0.0584115 2 10 3
3.12934 0.0583827 0.0583827 2 10 3
3.12935 0.0583538 0.0583538 2 10 3
3.12937 0.058325 0.058325 2 10 3
3.12938 0.0582962 0.0582962 2 10 3
3.12939 0.0582673 0.0582673 2 10 3
3.12941 0.0582385 0.0582385 2 10 3
3.12942 0.0582097 0.0582097 2 10 3
3.12943 0.0581808 0.0581808 2 10 3
3.12945 0.058152 0.058152 2 10 3
3.12946 0.0581232 0.0581232 2 10 3
3.12947 0.0580944 0.0580944 2 10 3
3.12949 0.0580656 0.0580656 2 10 3
3.1295 0.0580368 0.0580368 2 10 3
3.12951 0.058008 0.058008 2 10 3
3.12953 0.0579792 0.0579792 2 10 3
3.12954 0.0579504 0.0579504 2 10 3
3.12955 0.0579216 0.0579216 2 10 3
3.12956 0.0578928 0.0578928 2 10 3
3.12958 0.057864 0.057864 2 10 3
3.12959 0.0578352 0.0578352 2 10 3
3.1296 0.0578064 0.0578064 2 10 3
3.12962 0.0577776 0.0577776 2 10 3
3.12963 0.0577489 0.0577489 2 10 3
3.12964 0.0577201 0.0577201 2 10 3
3.12966 0.0576913 0.0576913 2 10 3
3.12967 0.0576625 0.0576625 2 10 3
3.12968 0.0576338 0.0576338 2 10 3
3.1297 0.057605 0.057605 2 10 3
3.12971 0.0575763 0.0575763 2 10 3
3.12972 0.0575475 0.0575475 2 10 3
3.12974 0.0575187 0.0575187 2 10 3
3.12975 0.05749 0.05749 2 10 3
3.12976 0.0574612 0.0574612 2 10 3
3.12978 0.0574325 0.0574325 2 10 3
3.12979 0.0574038 0.0574038 2 10 3
3.1298 0.057375 0.057375 2 10 3
3.12982 0.0573463 0.0573463 2 10 3
3.12983 0.0573175 0.0573175 2 10 3
3.12984 0.0572888 0.0572888 2 10 3
3.12986 0.0572601 0.0572601 2 10 3
3.12987 0.0572314 0.0572314 2 10 3
3.12988 0.0572026 0.0572026 2 10 3
3.1299 0.0571739 0.0571739 2 10 3
3.12991 0.0571452 0.0571452 2 10 3
3.12992 0.0571165 0.0571165 2 10 3
3.12994 0.0570878 0.0570878 2 10 3
3.12995 0.0570591 0.0570591 2 10 3
3.12996 0.0570304 0.0570304 2 10 3
3.12997 0.0570017 0.0570017 2 10 3
3.12999 0.056973 0.056973 2 10 3
3.13 0.0569443 0.0569443 2 10 3
3.13001 0.0569156 0.0569156 2 10 3
3.13003 0.0568869 0.0568869 2 10 3
3.13004 0.0568582 0.0568582 2 10 3
3.13005 0.0568296 0.0568296 2 10 3
3.13007 0.0568009 0.0568009 2 10 3
3.13008 0.0567722 0.0567722 2 10 3
3.13009 0.0567435 0.0567435 2 10 3
3.13011 0.0567149 0.0567149 2 10 3
3.13012 0.0566862 0.0566862 2 10 3
3.13013 0.0566575 0.0566575 2 10 3
3.13015 0.0566289 0.0566289 2 10 3
3.13016 0.0566002 0.0566002 2 10 3
3.13017 0.0565716 0.0565716 2 10 3
3.13018 0.0565429 0.0565429 2 10 3
3.1302 0.0565143 0.0565143 2 10 3
3.13021 0.0564856 0.0564856 2 10 3
3.13022 0.056457 0.056457 2 10 3
3.13024 0.0564283 0.0564283 2 10 3
3.13025 0.0563997 0.0563997 2 10 3
3.13026 0.0563711 0.0563711 2 10 3
3.13028 0.0563425 0.0563425 2 10 3
3.13029 0.0563138 0.0563138 2 10 3
3.1303 0.0562852 0.0562852 2 10 3
3.13032 0.0562566 0.0562566 2 10 3
3.13033 0.056228 0.056228 2 10 3
3.13034 0.0561994 0.0561994 2 10 3
3.13036 0.0561707 0.0561707 2 10 3
3.13037 0.0561421 0.0561421 2 10 3
3.13038 0.0561135 0.0561135 2 10 3
3.13039 0.0560849 0.0560849 2 10 3
3.13041 0.0560563 0.0560563 2 10 3
3.13042 0.0560277 0.0560277 2 10 3
3.13043 0.0559991 0.0559991 2 10 3
3.13045 0.0559705 0.0559705 2 10 3
3.13046 0.055942 0.055942 2 10 3
3.13047 0.0559134 0.0559134 2 10 3
3.13049 0.0558848 0.0558848 2 10 3
3.1305 0.0558562 0.0558562 2 10 3
3.13051 0.0558276 0.0558276 2 10 3
3.13053 0.0557991 0.0557991 2 10 3
3.13054 0.0557705 0.0557705 2 10 3
3.13055 0.0557419 0.0557419 2 10 3
3.13056 0.0557134 0.0557134 2 10 3
3.13058 0.0556848 0.0556848 2 10 3
3.13059 0.0556563 0.0556563 2 10 3
3.1306 0.0556277 0.0556277 2 10 3
3.13062 0.0555992 0.0555992 2 10 3
3.13063 0.0555706 0.0555706 2 10 3
3.13064 0.0555421 0.0555421 2 10 3
3.13066 0.0555135 0.0555135 2 10 3
3.13067 0.055485 0.055485 2 10 3
3.13068 0.0554564 0.0554564 2 10 3
3.13069 0.0554279 0.0554279 2 10 3
3.13071 0.0553994 0.0553994 2 10 3
3.13072 0.0553709 0.0553709 2 10 3
3.13073 0.0553423 0.0553423 2 10 3
3.13075 0.0553138 0.0553138 2 10 3
3.13076 0.0552853 0.0552853 2 10 3
3.13077 0.0552568 0.0552568 2 10 3
3.13079 0.0552283 0.0552283 2 10 3
3.1308 0.0551998 0.0551998 2 10 3
3.13081 0.0551713 0.0551713 2 10 3
3.13082 0.0551428 0.0551428 2 10 3
3.13084 0.0551143 0.0551143 2 10 3
3.13085 0.0550858 0.0550858 2 10 3
3.13086 0.0550573 0.0550573 2 10 3
3.13088 0.0550288 0.0550288 2 10 3
3.13089 0.0550003 0.0550003 2 10 3
3.1309 0.0549718 0.0549718 2 10 3
3.13092 0.0549433 0.0549433 2 10 3
3.13093 0.0549149 0.0549149 2 10 3
3.13094 0.0548864 0.0548864 2 10 3
3.13095 0.0548579 0.0548579 2 10 3
3.13097 0.0548294 0.0548294 2 10 3
3.13098 0.054801 0.054801 2 10 3
3.13099 0.0547725 0.0547725 2 10 3
3.13101 0.054744 0.054744 2 10 3
3.13102 0.0547156 0.0547156 2 10 3
3.13103 0.0546871 0.0546871 2 10 3
3.13104 0.0546587 0.0546587 2 10 3
3.13106 0.0546302 0.0546302 2 10 3
3.13107 0.0546018 0.0546018 2 10 3
3.13108 0.0545733 0.0545733 2 10 3
3.1311 0.0545449 0.0545449 2 10 3
3.13111 0.0545165 0.0545165 2 10 3
3.13112 0.054488 0.054488 2 10 3
3.13114 0.0544596 0.0544596 2 10 3
3.13115 0.0544312 0.0544312 2 10 3
3.13116 0.0544028 0.0544028 2 10 3
3.13117 0.0543743 0.0543743 2 10 3
3.13119 0.0543459 0.0543459 2 10 3
3.1312 0.0543175 0.0543175 2 10 3
3.13121 0.0542891 0.0542891 2 10 3
3.13123 0.0542607 0.0542607 2 10 3
3.13124 0.0542323 0.0542323 2 10 3
3.13125 0.0542039 0.0542039 2 10 3
3.13126 0.0541755 0.0541755 2 10 3
3.13128 0.0541471 0.0541471 2 10 3
3.13129 0.0541187 0.0541187 2 10 3
3.1313 0.0540903 0.0540903 2 10 3
3.13132 0.0540619 0.0540619 2 10 3
3.13133 0.0540335 0.0540335 2 10 3
3.13134 0.0540051 0.0540051 2 10 3
3.13135 0.0539768 0.0539768 2 10 3
3.13137 0.0539484 0.0539484 2 10 3
3.13138 0.05392 0.05392 2 10 3
3.13139 0.0538916 0.0538916 2 10 3
3.13141 0.0538633 0.0538633 2 10 3
3.13142 0.0538349 0.0538349 2 10 3
3.13143 0.0538066 0.0538066 2 10 3
3.13144 0.0537782 0.0537782 2 10 3
3.13146 0.0537498 0.0537498 2 10 3
3.13147 0.0537215 0.0537215 2 10 3
3.13148 0.0536931 0.0536931 2 10 3
3.1315 0.0536648 0.0536648 2 10 3
3.13151 0.0536364 0.0536364 2 10 3
3.13152 0.0536081 0.0536081 2 10 3
3.13153 0.0535798 0.0535798 2 10 3
3.13155 0.0535514 0.0535514 2 10 3
3.13156 0.0535231 0.0535231 2 10 3
3.13157 0.0534948 0.0534948 2 10 3
3.13159 0.0534665 0.0534665 2 10 3
3.1316 0.0534381 0.0534381 2 10 3
3.13161 0.0534098 0.0534098 2 10 3
3.13162 0.0533815 0.0533815 2 10 3
3.13164 0.0533532 0.0533532 2 10 3
3.13165 0.0533249 0.0533249 2 10 3
3.13166 0.0532966 0.0532966 2 10 3
3.13168 0.0532683 0.0532683 2 10 3
3.13169 0.05324 0.05324 2 10 3
3.1317 0.0532117 0.0532117 2 10 3
3.13171 0.0531834 0.0531834 2 10 3
3.13173 0.0531551 0.0531551 2 10 3
3.13174 0.0531268 0.0531268 2 10 3
3.13175 0.0530985 0.0530985 2 10 3
3.13176 0.0530702 0.0530702 2 10 3
3.13178 0.0530419 0.0530419 2 10 3
3.13179 0.0530137 0.0530137 2 10 3
3.1318 0.0529854 0.0529854 2 10 3
3.13182 0.0529571 0.0529571 2 10 3
3.13183 0.0529289 0.0529289 2 10 3
3.13184 0.0529006 0.0529006 2 10 3
3.13185 0.0528723 0.0528723 2 10 3
3.13187 0.0528441 0.0528441 2 10 3
3.13188 0.0528158 0.0528158 2 10 3
3.13189 0.0527876 0.0527876 2 10 3
3.1319 0.0527593 0.0527593 2 10 3
3.13192 0.0527311 0.0527311 2 10 3
3.13193 0.0527028 0.0527028 2 10 3
3.13194 0.0526746 0.0526746 2 10 3
3.13196 0.0526463 0.0526463 2 10 3
3.13197 0.0526181 0.0526181 2 10 3
3.13198 0.0525899 0.0525899 2 10 3
3.13199 0.0525616 0.0525616 2 10 3
3.13201 0.0525334 0.0525334 2 10 3
3.13202 0.0525052 0.0525052 2 10 3
3.13203 0.052477 0.052477 2 10 3
3.13204 0.0524488 0.0524488 2 10 3
3.13206 0.0524205 0.0524205 2 10 3
3.13207 0.0523923 0.0523923 2 10 3
3.13208 0.0523641 0.0523641 2 10 3
3.1321 0.0523359 0.0523359 2 10 3
3.13211 0.0523077 0.0523077 2 10 3
3.13212 0.0522795 0.0522795 2 10 3
3.13213 0.0522513 0.0522513 2 10 3
3.13215 0.0522231 0.0522231 2 10 3
3.13216 0.0521949 0.0521949 2 10 3
3.13217 0.0521667 0.0521667 2 10 3
3.13218 0.0521386 0.0521386 2 10 3
3.1322 0.0521104 0.0521104 2 10 3
3.13221 0.0520822 0.0520822 2 10 3
3.13222 0.052054 0.052054 2 10 3
3.13224 0.0520259 0.0520259 2 10 3
3.13225 0.0519977 0.0519977 2 10 3
3.13226 0.0519695 0.0519695 2 10 3
3.13227 0.0519414 0.0519414 2 10 3
3.13229 0.0519132 0.0519132 2 10 3
3.1323 0.051885 0.051885 2 10 3
3.13231 0.0518569 0.0518569 2 10 3
3.13232 0.0518287 0.0518287 2 10 3
3.13234 0.0518006 0.0518006 2 10 3
3.13235 0.0517724 0.0517724 2 10 3
3.13236 0.0517443 0.0517443 2 10 3
3.13237 0.0517162 0.0517162 2 10 3
3.13239 0.051688 0.051688 2 10 3
3.1324 0.0516599 0.0516599 2 10 3
3.13241 0.0516318 0.0516318 2 10 3
3.13243 0.0516036 0.0516036 2 10 3
3.13244 0.0515755 0.0515755 2 10 3
3.13245 0.0515474 0.0515474 2 10 3
3.13246 0.0515193 0.0515193 2 10 3
3.13248 0.0514911 0.0514911 2 10 3
3.13249 0.051463 0.051463 2 10 3
3.1325 0.0514349 0.0514349 2 10 3
3.13251 0.0514068 0.0514068 2 10 3
3.13253 0.0513787 0.0513787 2 10 3
3.13254 0.0513506 0.0513506 2 10 3
3.13255 0.0513225 0.0513225 2 10 3
3.13256 0.0512944 0.0512944 2 10 3
3.13258 0.0512663 0.0512663 2 10 3
3.13259 0.0512382 0.0512382 2 10 3
3.1326 0.0512101 0.0512101 2 10 3
3.13261 0.0511821 0.0511821 2 10 3
3.13263 0.051154 0.051154 2 10 3
3.13264 0.0511259 0.0511259 2 10 3
3.13265 0.0510978 0.0510978 2 10 3
3.13266 0.0510698 0.0510698 2 10 3
3.13268 0.0510417 0.0510417 2 10 3
3.13269 0.0510136 0.0510136 2 10 3
3.1327 0.0509856 0.0509856 2 10 3
3.13271 0.0509575 0.0509575 2 10 3
3.13273 0.0509294 0.0509294 2 10 3
3.13274 0.0509014 0.0509014 2 10 3
3.13275 0.0508733 0.0508733 2 10 3
3.13276 0.0508453 0.0508453 2 10 3
3.13278 0.0508173 0.0508173 2 10 3
3.13279 0.0507892 0.0507892 2 10 3
3.1328 0.0507612 0.0507612 2 10 3
3.13282 0.0507331 0.0507331 2 10 3
3.13283 0.0507051 0.0507051 2 10 3
3.13284 0.0506771 0.0506771 2 10 3
3.13285 0.050649 0.050649 2 10 3
3.13287 0.050621 0.050621 2 10 3
3.13288 0.050593 0.050593 2 10 3
3.13289 0.050565 0.050565 2 10 3
3.1329 0.050537 0.050537 2 10 3
3.13292 0.050509 0.050509 2 10 3
3.13293 0.0504809 0.0504809 2 10 3
3.13294 0.0504529 0.0504529 2 10 3
3.13295 0.0504249 0.0504249 2 10 3
3.13297 0.0503969 0.0503969 2 10 3
3.13298 0.0503689 0.0503689 2 10 3
3.13299 0.0503409 0.0503409 2 10 3
3.133 0.050313 0.050313 2 10 3
3.13302 0.050285 0.050285 2 10 3
3.13303 0.050257 0.050257 2 10 3
3.13304 0.050229 0.050229 2 10 3
3.13305 0.050201 0.050201 2 10 3
3.13307 0.050173 0.050173 2 10 3
3.13308 0.0501451 0.0501451 2 10 3
3.13309 0.0501171 0.0501171 2 10 3
3.1331 0.0500891 0.0500891 2 10 3
3.13312 0.0500612 0.0500612 2 10 3
3.13313 0.0500332 0.0500332 2 10 3
3.13314 0.0500052 0.0500052 2 10 3
3.13315 0.0499773 0.0499773 2 10 3
3.13317 0.0499493 0.0499493 2 10 3
3.13318 0.0499214 0.0499214 2 10 3
3.13319 0.0498934 0.0498934 2 10 3
3.1332 0.0498655 0.0498655 2 10 3
3.13322 0.0498376 0.0498376 2 10 3
3.13323 0.0498096 0.0498096 2 10 3
3.13324 0.0497817 0.0497817 2 10 3
3.13325 0.0497537 0.0497537 2 10 3
3.13326 0.0497258 0.0497258 2 10 3
3.13328 0.0496979 0.0496979 2 10 3
3.13329 0.04967 0.04967 2 10 3
3.1333 0.049642 0.049642 2 10 3
3.13331 0.0496141 0.0496141 2 10 3
3.13333 0.0495862 0.0495862 2 10 3
3.13334 0.0495583 0.0495583 2 10 3
3.13335 0.0495304 0.0495304 2 10 3
3.13336 0.0495025 0.0495025 2 10 3
3.13338 0.0494746 0.0494746 2 10 3
3.13339 0.0494467 0.0494467 2 10 3
3.1334 0.0494188 0.0494188 2 10 3
3.13341 0.0493909 0.0493909 2 10 3
3.13343 0.049363 0.049363 2 10 3
3.13344 0.0493351 0.0493351 2 10 3
3.13345 0.0493072 0.0493072 2 10 3
3.13346 0.0492793 0.0492793 2 10 3
3.13348 0.0492515 0.0492515 2 10 3
3.13349 0.0492236 0.0492236 2 10 3
3.1335 0.0491957 0.0491957 2 10 3
3.13351 0.0491678 0.0491678 2 10 3
3.13353 0.04914 0.04914 2 10 3
3.13354 0.0491121 0.0491121 2 10 3
3.13355 0.0490843 0.0490843 2 10 3
3.13356 0.0490564 0.0490564 2 10 3
3.13357 0.0490285 0.0490285 2 10 3
3.13359 0.0490007 0.0490007 2 10 3
3.1336 0.0489728 0.0489728 2 10 3
3.13361 0.048945 0.048945 2 10 3
3.13362 0.0489172 0.0489172 2 10 3
3.13364 0.0488893 0.0488893 2 10 3
3.13365 0.0488615 0.0488615 2 10 3
3.13366 0.0488336 0.0488336 2 10 3
3.13367 0.0488058 0.0488058 2 10 3
3.13369 0.048778 0.048778 2 10 3
3.1337 0.0487501 0.0487501 2 10 3
3.13371 0.0487223 0.0487223 2 10 3
3.13372 0.0486945 0.0486945 2 10 3
3.13374 0.0486667 0.0486667 2 10 3
3.13375 0.0486389 0.0486389 2 10 3
3.13376 0.0486111 0.0486111 2 10 3
3.13377 0.0485833 0.0485833 2 10 3
3.13378 0.0485554 0.0485554 2 10 3
3.1338 0.0485276 0.0485276 2 10 3
3.13381 0.0484998 0.0484998 2 10 3
3.13382 0.048472 0.048472 2 10 3
3.13383 0.0484443 0.0484443 2 10 3
3.13385 0.0484165 0.0484165 2 10 3
3.13386 0.0483887 0.0483887 2 10 3
3.13387 0.0483609 0.0483609 2 10 3
3.13388 0.0483331 0.0483331 2 10 3
3.1339 0.0483053 0.0483053 2 10 3
3.13391 0.0482776 0.0482776 2 10 3
3.13392 0.0482498 0.0482498 2 10 3
3.13393 0.048222 0.048222 2 10 3
3.13394 0.0481942 0.0481942 2 10 3
3.13396 0.0481665 0.0481665 2 10 3
3.13397 0.0481387 0.0481387 2 10 3
3.13398 0.048111 0.048111 2 10 3
3.13399 0.0480832 0.0480832 2 10 3
3.13401 0.0480554 0.0480554 2 10 3
3.13402 0.0480277 0.0480277 2 10 3
3.13403 0.048 0.048 2 10 3
3.13404 0.0479722 0.0479722 2 10 3
3.13406 0.0479445 0.0479445 2 10 3
3.13407 0.0479167 0.0479167 2 10 3
3.13408 0.047889 0.047889 2 10 3
3.13409 0.0478613 0.0478613 2 10 3
3.1341 0.0478335 0.0478335 2 10 3
3.13412 0.0478058 0.0478058 2 10 3
3.13413 0.0477781 0.0477781 2 10 3
3.13414 0.0477504 0.0477504 2 10 3
3.13415 0.0477226 0.0477226 2 10 3
3.13417 0.0476949 0.0476949 2 10 3
3.13418 0.0476672 0.0476672 2 10 3
3.13419 0.0476395 0.0476395 2 10 3
3.1342 0.0476118 0.0476118 2 10 3
3.13421 0.0475841 0.0475841 2 10 3
3.13423 0.0475564 0.0475564 2 10 3
3.13424 0.0475287 0.0475287 2 10 3
3.13425 0.047501 0.047501 2 10 3
3.13426 0.0474733 0.0474733 2 10 3
3.13428 0.0474456 0.0474456 2 10 3
3.13429 0.0474179 0.0474179 2 10 3
3.1343 0.0473903 0.0473903 2 10 3
3.13431 0.0473626 0.0473626 2 10 3
3.13432 0.0473349 0.0473349 2 10 3
3.13434 0.0473072 0.0473072 2 10 3
3.13435 0.0472796 0.0472796 2 10 3
3.13436 0.0472519 0.0472519 2 10 3
3.13437 0.0472242 0.0472242 2 10 3
3.13439 0.0471966 0.0471966 2 10 3
3.1344 0.0471689 0.0471689 2 10 3
3.13441 0.0471413 0.0471413 2 10 3
3.13442 0.0471136 0.0471136 2 10 3
3.13443 0.0470859 0.0470859 2 10 3
3.13445 0.0470583 0.0470583 2 10 3
3.13446 0.0470307 0.0470307 2 10 3
3.13447 0.047003 0.047003 2 10 3
3.13448 0.0469754 0.0469754 2 10 3
3.1345 0.0469477 0.0469477 2 10 3
3.13451 0.0469201 0.0469201 2 10 3
3.13452 0.0468925 0.0468925 2 10 3
3.13453 0.0468648 0.0468648 2 10 3
3.13454 0.0468372 0.0468372 2 10 3
3.13456 0.0468096 0.0468096 2 10 3
3.13457 0.046782 0.046782 2 10 3
3.13458 0.0467544 0.0467544 2 10 3
3.13459 0.0467268 0.0467268 2 10 3
3.1346 0.0466991 0.0466991 2 10 3
3.13462 0.0466715 0.0466715 2 10 3
3.13463 0.0466439 0.0466439 2 10 3
3.13464 0.0466163 0.0466163 2 10 3
3.13465 0.0465887 0.0465887 2 10 3
3.13467 0.0465611 0.0465611 2 10 3
3.13468 0.0465336 0.0465336 2 10 3
3.13469 0.046506 0.046506 2 10 3
3.1347 0.0464784 0.0464784 2 10 3
3.13471 0.0464508 0.0464508 2 10 3
3.13473 0.0464232 0.0464232 2 10 3
3.13474 0.0463956 0.0463956 2 10 3
3.13475 0.0463681 0.0463681 2 10 3
3.13476 0.0463405 0.0463405 2 10 3
3.13477 0.0463129 0.0463129 2 10 3
3.13479 0.0462854 0.0462854 2 10 3
3.1348 0.0462578 0.0462578 2 10 3
3.13481 0.0462302 0.0462302 2 10 3
3.13482 0.0462027 0.0462027 2 10 3
3.13484 0.0461751 0.0461751 2 10 3
3.13485 0.0461476 0.0461476 2 10 3
3.13486 0.04612 0.04612 2 10 3
3.13487 0.0460925 0.0460925 2 10 3
3.13488 0.0460649 0.0460649 2 10 3
3.1349 0.0460374 0.0460374 2 10 3
3.13491 0.0460099 0.0460099 2 10 3
3.13492 0.0459823 0.0459823 2 10 3
3.13493 0.0459548 0.0459548 2 10 3
3.13494 0.0459273 0.0459273 2 10 3
3.13496 0.0458997 0.0458997 2 10 3
3.13497 0.0458722 0.0458722 2 10 3
3.13498 0.0458447 0.0458447 2 10 3
3.13499 0.0458172 0.0458172 2 10 3
3.135 0.0457897 0.0457897 2 10 3
3.13502 0.0457622 0.0457622 2 10 3
3.13503 0.0457347 0.0457347 2 10 3
3.13504 0.0457071 0.0457071 2 10 3
3.13505 0.0456796 0.0456796 2 10 3
3.13506 0.0456521 0.0456521 2 10 3
3.13508 0.0456246 0.0456246 2 10 3
3.13509 0.0455972 0.0455972 2 10 3
3.1351 0.0455697 0.0455697 2 10 3
3.13511 0.0455422 0.0455422 2 10 3
3.13512 0.0455147 0.0455147 2 10 3
3.13514 0.0454872 0.0454872 2 10 3
3.13515 0.0454597 0.0454597 2 10 3
3.13516 0.0454323 0.0454323 2 10 3
3.13517 0.0454048 0.0454048 2 10 3
3.13518 0.0453773 0.0453773 2 10 3
3.1352 0.0453498 0.0453498 2 10 3
3.13521 0.0453224 0.0453224 2 10 3
3.13522 0.0452949 0.0452949 2 10 3
3.13523 0.0452675 0.0452675 2 10 3
3.13525 0.04524 0.04524 2 10 3
3.13526 0.0452126 0.0452126 2 10 3
3.13527 0.0451851 0.0451851 2 10 3
3.13528 0.0451577 0.0451577 2 10 3
3.13529 0.0451302 0.0451302 2 10 3
3.13531 0.0451028 0.0451028 2 10 3
3.13532 0.0450753 0.0450753 2 10 3
3.13533 0.0450479 0.0450479 2 10 3
3.13534 0.0450205 0.0450205 2 10 3
3.13535 0.044993 0.044993 2 10 3
3.13536 0.0449656 0.0449656 2 10 3
3.13538 0.0449382 0.0449382 2 10 3
3.13539 0.0449108 0.0449108 2 10 3
3.1354 0.0448834 0.0448834 2 10 3
3.13541 0.0448559 0.0448559 2 10 3
3.13542 0.0448285 0.0448285 2 10 3
3.13544 0.0448011 0.0448011 2 10 3
3.13545 0.0447737 0.0447737 2 10 3
3.13546 0.0447463 0.0447463 2 10 3
3.13547 0.0447189 0.0447189 2 10 3
3.13548 0.0446915 0.0446915 2 10 3
3.1355 0.0446641 0.0446641 2 10 3
3.13551 0.0446367 0.0446367 2 10 3
3.13552 0.0446093 0.0446093 2 10 3
3.13553 0.044582 0.044582 2 10 3
3.13554 0.0445546 0.0445546 2 10 3
3.13556 0.0445272 0.0445272 2 10 3
3.13557 0.0444998 0.0444998 2 10 3
3.13558 0.0444724 0.0444724 2 10 3
3.13559 0.0444451 0.0444451 2 10 3
3.1356 0.0444177 0.0444177 2 10 3
3.13562 0.0443903 0.0443903 2 10 3
3.13563 0.044363 0.044363 2 10 3
3.13564 0.0443356 0.0443356 2 10 3
3.13565 0.0443083 0.0443083 2 10 3
3.13566 0.0442809 0.0442809 2 10 3
3.13568 0.0442535 0.0442535 2 10 3
3.13569 0.0442262 0.0442262 2 10 3
3.1357 0.0441989 0.0441989 2 10 3
3.13571 0.0441715 0.0441715 2 10 3
3.13572 0.0441442 0.0441442 2 10 3
3.13574 0.0441168 0.0441168 2 10 3
3.13575 0.0440895 0.0440895 2 10 3
3.13576 0.0440622 0.0440622 2 10 3
3.13577 0.0440348 0.0440348 2 10 3
3.13578 0.0440075 0.0440075 2 10 3
3.13579 0.0439802 0.0439802 2 10 3
3.13581 0.0439529 0.0439529 2 10 3
3.13582 0.0439256 0.0439256 2 10 3
3.13583 0.0438982 0.0438982 2 10 3
3.13584 0.0438709 0.0438709 2 10 3
3.13585 0.0438436 0.0438436 2 10 3
3.13587 0.0438163 0.0438163 2 10 3
3.13588 0.043789 0.043789 2 10 3
3.13589 0.0437617 0.0437617 2 10 3
3.1359 0.0437344 0.0437344 2 10 3
3.13591 0.0437071 0.0437071 2 10 3
3.13593 0.0436798 0.0436798 2 10 3
3.13594 0.0436525 0.0436525 2 10 3
3.13595 0.0436253 0.0436253 2 10 3
3.13596 0.043598 0.043598 2 10 3
3.13597 0.0435707 0.0435707 2 10 3
3.13598 0.0435434 0.0435434 2 10 3
3.136 0.0435162 0.0435162 2 10 3
3.13601 0.0434889 0.0434889 2 10 3
3.13602 0.0434616 0.0434616 2 10 3
3.13603 0.0434343 0.0434343 2 10 3
3.13604 0.0434071 0.0434071 2 10 3
3.13606 0.0433798 0.0433798 2 10 3
3.13607 0.0433526 0.0433526 2 10 3
3.13608 0.0433253 0.0433253 2 10 3
3.13609 0.0432981 0.0432981 2 10 3
3.1361 0.0432708 0.0432708 2 10 3
3.13611 0.0432436 0.0432436 2 10 3
3.13613 0.0432163 0.0432163 2 10 3
3.13614 0.0431891 0.0431891 2 10 3
3.13615 0.0431619 0.0431619 2 10 3
3.13616 0.0431346 0.0431346 2 10 3
3.13617 0.0431074 0.0431074 2 10 3
3.13619 0.0430802 0.0430802 2 10 3
3.1362 0.0430529 0.0430529 2 10 3
3.13621 0.0430257 0.0430257 2 10 3
3.13622 0.0429985 0.0429985 2 10 3
3.13623 0.0429713 0.0429713 2 10 3
3.13624 0.0429441 0.0429441 2 10 3
3.13626 0.0429169 0.0429169 2 10 3
3.13627 0.0428897 0.0428897 2 10 3
3.13628 0.0428625 0.0428625 2 10 3
3.13629 0.0428353 0.0428353 2 10 3
3.1363 0.0428081 0.0428081 2 10 3
